ply
format ascii 1.0
element vertex 50
property float x
property float y
property float z
property uchar red
property uchar green
property uchar blue
end_header
-51.2502784729003906 38.2127761840820312 67.2903289794921875 150 104 0
-18.9250297546386719 43.4743576049804688 78.9986114501953125 150 104 0
-29.9582557678222656 16.4130764007568359 89.9622726440429688 150 104 0
-43.8916015625 23.9075717926025391 78.4117507934570312 150 104 0
-28.3360061645507812 25.0617237091064453 87.2224197387695312 150 104 0
-36.8311576843261719 22.0175094604492188 83.7711181640625 150 104 0
-48.0519447326660156 47.7349281311035156 63.560028076171875 150 104 0
-21.3429641723632812 46.5261650085449219 76.0994338989257812 150 104 0
-23.2996292114257812 44.6309165954589844 76.6161880493164062 150 104 0
-26.7320480346679688 29.7893161773681641 84.7827224731445312 150 104 0
-34.5339813232421875 29.2577877044677734 81.2608108520507812 150 104 0
-25.1561660766601562 33.2883491516113281 82.8495635986328125 150 104 0
-37.8815231323242188 15.0641021728515625 84.7679824829101562 150 104 0
-18.7100276947021484 33.0720939636230469 87.9527664184570312 150 104 0
-30.2275352478027344 36.4642715454101562 78.4929962158203125 150 104 0
-39.4723663330078125 27.0749759674072266 80.223297119140625 150 104 0
-33.9859580993652344 15.3867168426513672 87.7347412109375 150 104 0
-46.9612007141113281 23.2120285034179688 76.1614913940429688 150 104 0
-42.472137451171875 31.3819084167480469 76.78759765625 150 104 0
28.7601852416992188 -12.3570623397827148 89.2767257690429688 150 104 0
-47.6998634338378906 29.5653152465820312 74.4282150268554688 150 104 0
-33.4996719360351562 25.7948131561279297 83.786773681640625 150 104 0
-33.9386749267578125 38.4507179260253906 76.6717529296875 150 104 0
-33.9972076416015625 44.7073211669921875 73.0556640625 150 104 0
-50.7410316467285156 25.1270771026611328 72.6560440063476562 150 104 0
-36.6170730590820312 34.3239898681640625 77.8049545288085938 150 104 0
-44.2086715698242188 44.83782958984375 68.194793701171875 150 104 0
-39.1956405639648438 45.8336372375488281 70.6592025756835938 150 104 0
-35.7534332275390625 44.0740966796875 72.5383529663085938 150 104 0
-41.0593605041503906 36.4305038452148438 75.21630859375 150 104 0
-30.1237506866455078 41.3985633850097656 76.4906387329101562 150 104 0
-41.9992523193359375 19.5136394500732422 80.699859619140625 150 104 0
-39.1712417602539062 42.7859687805175781 72.0494003295898438 150 104 0
-17.6015834808349609 46.8382492065429688 77.0893096923828125 150 104 0
-16.2299079895019531 50.6908798217773438 74.68304443359375 150 104 0
-48.045501708984375 35.3112335205078125 71.7235565185546875 150 104 0
-24.9895076751708984 40.6584701538085938 78.2418441772460938 150 104 0
-38.7425384521484375 40.2944793701171875 73.943359375 150 104 0
-21.6817302703857422 29.6043968200683594 87.8790130615234375 150 104 0
-25.8639316558837891 36.4335556030273438 80.1006240844726562 150 104 0
-43.5468711853027344 35.5660324096679688 74.3869247436523438 150 104 0
-34.4510574340820312 42.2145004272460938 74.3953475952148438 150 104 0
29.9555778503417969 -11.4669971466064453 85.9074249267578125 150 104 0
-14.3068056106567383 51.1013298034667969 75.204742431640625 150 104 0
-43.7801284790039062 42.2855453491210938 69.990234375 150 104 0
-45.4818267822265625 28.0236396789550781 76.2858428955078125 150 104 0
-32.485870361328125 42.6016387939453125 75.0512619018554688 150 104 0
-28.0579738616943359 44.299407958984375 75.0475234985351562 150 104 0
-53.0931663513183594 45.1633758544921875 60.971893310546875 150 104 0
-41.5574150085449219 46.3077583312988281 69.2108993530273438 150 104 0
