ply
format ascii 1.0
element vertex 42
property float x
property float y
property float z
property uchar red
property uchar green
property uchar blue
end_header
31.5609302520751953 33.693634033203125 83.2625274658203125 140 114 0
22.6944713592529297 45.1237411499023438 77.5048141479492188 140 114 0
34.2915534973144531 40.8967475891113281 74.3868331909179688 140 114 0
31.9989738464355469 44.2667999267578125 74.3321075439453125 140 114 0
31.3673286437988281 41.7909965515136719 75.0102462768554688 140 114 0
26.4762001037597656 46.7343521118164062 74.4821319580078125 140 114 0
23.6288204193115234 38.7761116027832031 84.7982254028320312 140 114 0
28.5670013427734375 44.5490493774414062 74.961761474609375 140 114 0
25.1154365539550781 45.956787109375 75.1958465576171875 140 114 0
33.2646751403808594 35.6759414672851562 80.4440841674804688 140 114 0
19.7786445617675781 49.9666557312011719 74.8355331420898438 140 114 0
29.5058917999267578 46.4469490051269531 73.7147369384765625 140 114 0
25.14019775390625 43.7534866333007812 76.4790420532226562 140 114 0
46.1833724975585938 40.1169929504394531 69.9534835815429688 140 114 0
36.3679084777832031 27.2188377380371094 84.3130569458007812 140 114 0
28.1970977783203125 38.957977294921875 80.0952911376953125 140 114 0
36.1416702270507812 39.9128646850585938 74.4173660278320312 140 114 0
26.6144657135009766 34.0401573181152344 85.2531280517578125 140 114 0
25.6117630004882812 16.5081691741943359 83.1983413696289062 140 114 0
38.9034538269042969 33.2404747009277344 79.6293792724609375 140 114 0
48.3363761901855469 44.6748695373535156 64.4936904907226562 140 114 0
26.7373542785644531 40.9622573852539062 78.3895797729492188 140 114 0
31.4804458618164062 40.4894065856933594 75.8554916381835938 140 114 0
48.0964088439941406 35.2761878967285156 72.5456314086914062 140 114 0
40.4444503784179688 23.7650489807128906 83.4551620483398438 140 114 0
38.0822715759277344 28.4629669189453125 83.1374969482421875 140 114 0
27.8958473205566406 49.1231269836425781 73.5276565551757812 140 114 0
21.9363956451416016 47.3773002624511719 75.4916229248046875 140 114 0
19.9635200500488281 52.6606483459472656 72.7507095336914062 140 114 0
35.3735923767089844 43.8314781188964844 73.3444137573242188 140 114 0
26.8781051635742188 35.0971031188964844 84.8902206420898438 140 114 0
41.1818199157714844 39.9163131713867188 72.5908737182617188 140 114 0
29.0349636077880859 42.1477165222167969 75.7646560668945312 140 114 0
38.8485260009765625 30.3508377075195312 81.7357177734375 140 114 0
41.7234458923339844 35.9127349853515625 75.7440414428710938 140 114 0
37.8962974548339844 43.7176589965820312 72.36090087890625 140 114 0
29.5341758728027344 12.3135566711425781 82.8972625732421875 140 114 0
31.0190658569335938 9.85150718688964844 82.9262771606445312 140 114 0
45.2346916198730469 42.2447853088378906 69.077911376953125 140 114 0
28.3462257385253906 36.9117660522460938 82.7270584106445312 140 114 0
46.3036231994628906 31.9721221923828125 76.1953887939453125 140 114 0
33.4256858825683594 47.6680755615234375 73.0729446411132812 140 114 0
