ply
format ascii 1.0
element vertex 686
property float x
property float y
property float z
property uchar red
property uchar green
property uchar blue
end_header
-16.0433673858642578 133.0360107421875 63.3223457336425781 147 107 0
-65.3280410766601562 59.4218330383300781 40.3403167724609375 147 107 0
-18.4032630920410156 127.422019958496094 66.417083740234375 147 107 0
27.3840007781982422 144.667694091796875 48.5278129577636719 147 107 0
-56.457855224609375 111.660736083984375 44.0579948425292969 147 107 0
44.2511749267578125 79.8175506591796875 73.1709518432617188 147 107 0
-35.4162979125976562 124.765396118164062 59.4406547546386719 147 107 0
-71.0199432373046875 29.437774658203125 36.7994537353515625 147 107 0
-70.1045608520507812 33.0262260437011719 38.9635658264160156 147 107 0
34.1429977416992188 145.440887451171875 42.3632545471191406 147 107 0
-57.5432090759277344 101.043731689453125 45.6936111450195312 147 107 0
-51.9558753967285156 118.594886779785156 46.8216438293457031 147 107 0
22.9581680297851562 109.121917724609375 73.8869857788085938 147 107 0
-68.2638168334960938 44.5720024108886719 40.4145545959472656 147 107 0
39.5204658508300781 139.800613403320312 43.3682899475097656 147 107 0
3.33359789848327637 87.36590576171875 85.4812393188476562 147 107 0
42.3748550415039062 137.9559326171875 41.6999015808105469 147 107 0
-47.0900001525878906 75.4905319213867188 68.6223526000976562 147 107 0
40.6197662353515625 142.073928833007812 39.9619026184082031 147 107 0
27.5273342132568359 134.561447143554688 57.300750732421875 147 107 0
3.67284107208251953 113.872062683105469 75.1575469970703125 147 107 0
-52.6977272033691406 80.2099609375 59.0368461608886719 147 107 0
11.4178876876831055 133.605392456054688 63.7131271362304688 147 107 0
13.4316015243530273 132.525924682617188 63.5489006042480469 147 107 0
24.7385520935058594 130.563003540039062 61.6282424926757812 147 107 0
-29.9869155883789062 123.57904052734375 64.5159378051757812 147 107 0
-31.8978595733642578 116.137397766113281 68.2681655883789062 147 107 0
43.0989456176757812 142.078750610351562 36.1324615478515625 147 107 0
44.1137542724609375 140.978408813476562 36.0302925109863281 147 107 0
32.80499267578125 144.079910278320312 45.5881004333496094 147 107 0
33.4028587341308594 150.27618408203125 35.9035835266113281 147 107 0
41.9727249145507812 143.264617919921875 36.2328567504882812 147 107 0
41.25030517578125 143.326187133789062 36.90234375 147 107 0
-26.2343997955322266 137.205352783203125 55.1923942565917969 147 107 0
-42.2706184387207031 117.851913452148438 58.7473030090332031 147 107 0
-21.3935928344726562 125.951881408691406 66.8694992065429688 147 107 0
58.6004600524902344 114.553352355957031 37.44158935546875 147 107 0
-27.5792293548583984 108.498435974121094 73.1626205444335938 147 107 0
37.5411453247070312 132.074752807617188 51.9968109130859375 147 107 0
57.0738639831542969 102.724525451660156 48.5480003356933594 147 107 0
-61.9167442321777344 73.0591354370117188 42.4233474731445312 147 107 0
-55.2244453430175781 116.955062866210938 42.39068603515625 147 107 0
36.6420364379882812 143.9425048828125 41.6877250671386719 147 107 0
-60.550567626953125 95.3028182983398438 43.6771697998046875 147 107 0
-57.2283248901367188 118.149787902832031 37.3034591674804688 147 107 0
-64.8527297973632812 65.9039459228515625 37.7383232116699219 147 107 0
44.394073486328125 140.266387939453125 36.7424697875976562 147 107 0
45.3517265319824219 138.704833984375 37.19561767578125 147 107 0
46.9356842041015625 134.776397705078125 38.4072113037109375 147 107 0
33.0864219665527344 149.320693969726562 38.1441535949707031 147 107 0
31.1779994964599609 110.723747253417969 71.1456298828125 147 107 0
-45.6068840026855469 116.436134338378906 56.0936241149902344 147 107 0
58.6190223693847656 96.4081192016601562 48.205047607421875 147 107 0
59.9174385070800781 96.2301177978515625 46.0032310485839844 147 107 0
-31.9651012420654297 120.788307189941406 65.4262542724609375 147 107 0
59.8717918395996094 62.5146598815917969 54.8053054809570312 147 107 0
59.4755973815917969 66.5702590942382812 55.2587928771972656 147 107 0
-3.28470802307128906 134.73065185546875 64.4776077270507812 147 107 0
49.4192352294921875 124.509635925292969 44.7202796936035156 147 107 0
-56.3905029296875 69.10028076171875 55.3746299743652344 147 107 0
10.3027181625366211 -15.9726743698120117 103.623367309570312 147 107 0
56.9579277038574219 78.0975799560546875 57.5780868530273438 147 107 0
-63.2533683776855469 95.2210311889648438 38.08575439453125 147 107 0
-69.6825332641601562 26.5490837097167969 40.1095657348632812 147 107 0
31.2419376373291016 113.272537231445312 70.2439346313476562 147 107 0
61.9336357116699219 30.1352024078369141 58.3765068054199219 147 107 0
-71.1033477783203125 31.4343280792236328 36.7835426330566406 147 107 0
28.9235935211181641 128.241943359375 62.2843704223632812 147 107 0
36.0354499816894531 148.321334838867188 36.5639686584472656 147 107 0
-16.3433494567871094 131.182098388671875 63.8919219970703125 147 107 0
58.8523483276367188 42.4881401062011719 55.3697586059570312 147 107 0
-54.2580909729003906 125.642173767089844 36.7014122009277344 147 107 0
56.2958908081054688 118.89984130859375 38.2205390930175781 147 107 0
61.2135429382324219 106.853256225585938 37.0172691345214844 147 107 0
-3.70347404479980469 130.39825439453125 66.8026351928710938 147 107 0
45.1764602661132812 139.643569946289062 36.3858108520507812 147 107 0
-51.95501708984375 69.2626266479492188 64.7881851196289062 147 107 0
63.7695045471191406 93.88104248046875 38.2551460266113281 147 107 0
1.65900099277496338 127.153572082519531 68.9218368530273438 147 107 0
-58.3159523010253906 96.7666854858398438 46.4504051208496094 147 107 0
29.2793445587158203 129.893844604492188 60.1110343933105469 147 107 0
-7.25686883926391602 116.271926879882812 74.358062744140625 147 107 0
57.0983772277832031 73.130401611328125 58.6904258728027344 147 107 0
61.2953414916992188 104.799079895019531 37.3798789978027344 147 107 0
30.4020595550537109 141.17950439453125 49.6736907958984375 147 107 0
24.6966552734375 114.440811157226562 71.8275680541992188 147 107 0
58.3779525756835938 115.505821228027344 36.7192955017089844 147 107 0
59.4461212158203125 110.143096923828125 39.3699607849121094 147 107 0
-66.8593597412109375 59.1090202331542969 36.6716804504394531 147 107 0
62.8204154968261719 75.3888015747070312 46.0743980407714844 147 107 0
18.5387668609619141 131.698379516601562 63.1076889038085938 147 107 0
61.7186470031738281 88.4778060913085938 45.7882270812988281 147 107 0
58.1264381408691406 78.7203750610351562 55.1838417053222656 147 107 0
-55.0624771118164062 78.3623733520507812 55.6795310974121094 147 107 0
-67.9846267700195312 26.2296848297119141 44.211944580078125 147 107 0
44.8334999084472656 119.83544921875 55.5293655395507812 147 107 0
24.6233386993408203 148.576629638671875 46.2775230407714844 147 107 0
-26.2724113464355469 152.41455078125 36.5978126525878906 147 107 0
62.2029914855957031 91.9946746826171875 42.6644554138183594 147 107 0
-24.7906894683837891 117.882896423339844 71.0043258666992188 147 107 0
-1.0108950138092041 25.1966800689697266 114.476890563964844 147 107 0
-48.146942138671875 119.884384155273438 51.1824226379394531 147 107 0
50.0678558349609375 76.845184326171875 69.8684463500976562 147 107 0
50.6184501647949219 76.6815185546875 68.8249359130859375 147 107 0
55.5357246398925781 99.9300918579101562 52.8716316223144531 147 107 0
-66.819671630859375 58.1533584594726562 37.2707977294921875 147 107 0
-58.5657196044921875 115.214363098144531 37.1284904479980469 147 107 0
-58.5833892822265625 114.296836853027344 37.7483367919921875 147 107 0
-55.185211181640625 68.5246200561523438 58.2620735168457031 147 107 0
-11.1728544235229492 -39.3583297729492188 88.17645263671875 147 107 0
-11.6045503616333008 -40.5699920654296875 87.693115234375 147 107 0
-51.0456428527832031 114.692955017089844 50.101959228515625 147 107 0
-59.1415863037109375 41.2337989807128906 56.7846260070800781 147 107 0
-9.76418876647949219 134.5113525390625 63.7384567260742188 147 107 0
-9.66935825347900391 132.519882202148438 64.2921066284179688 147 107 0
-19.7719058990478516 151.911758422851562 43.1213798522949219 147 107 0
60.1525688171386719 86.9557952880859375 49.1973495483398438 147 107 0
60.5320816040039062 91.99664306640625 46.586395263671875 147 107 0
-34.0021400451660156 99.4757156372070312 71.640655517578125 147 107 0
39.5874557495117188 144.853057861328125 36.9095878601074219 147 107 0
60.72637939453125 108.650177001953125 36.9812660217285156 147 107 0
61.1810226440429688 107.825325012207031 36.4676361083984375 147 107 0
20.0941352844238281 90.0927581787109375 82.2213516235351562 147 107 0
50.4598312377929688 129.63226318359375 36.6381912231445312 147 107 0
-71.2748336791992188 36.419281005859375 35.9062957763671875 147 107 0
25.1355056762695312 88.1670989990234375 81.2050323486328125 147 107 0
-67.5551223754882812 55.1820106506347656 37.0656776428222656 147 107 0
-55.4477729797363281 121.972053527832031 37.4705238342285156 147 107 0
-7.88771820068359375 130.378646850585938 66.617919921875 147 107 0
57.8226356506347656 116.434600830078125 37.1849136352539062 147 107 0
-62.2939529418945312 103.225189208984375 37.2060279846191406 147 107 0
-62.2861175537109375 104.46551513671875 36.5756301879882812 147 107 0
46.9523048400878906 120.436279296875 51.6377601623535156 147 107 0
37.2259674072265625 103.082229614257812 69.524505615234375 147 107 0
-36.853271484375 90.5773773193359375 72.7038192749023438 147 107 0
30.5288963317871094 146.674362182617188 43.8806304931640625 147 107 0
38.70904541015625 145.68603515625 36.8849258422851562 147 107 0
28.1433582305908203 118.078231811523438 69.1779327392578125 147 107 0
58.4414176940917969 69.5125885009765625 57.1170654296875 147 107 0
-60.9228401184082031 62.8430519104003906 47.2274017333984375 147 107 0
63.7698249816894531 89.6224517822265625 40.1058616638183594 147 107 0
-54.6001243591308594 97.7560501098632812 52.2657585144042969 147 107 0
32.4621429443359375 150.520156860351562 36.4937896728515625 147 107 0
59.8805503845214844 81.3370132446289062 51.3557510375976562 147 107 0
64.062896728515625 92.1034317016601562 38.2447738647460938 147 107 0
64.3536376953125 90.9539260864257812 37.9297103881835938 147 107 0
53.7082061767578125 113.207489013671875 48.0182380676269531 147 107 0
62.4691238403320312 39.4530677795410156 52.2016143798828125 147 107 0
-66.5727462768554688 60.1379928588867188 37.1225318908691406 147 107 0
-35.3032760620117188 79.3575668334960938 77.70574951171875 147 107 0
-16.5232467651367188 112.301704406738281 75.324615478515625 147 107 0
63.2433395385742188 96.0427169799804688 37.9095458984375 147 107 0
56.033721923828125 120.285301208496094 36.7512779235839844 147 107 0
-3.08102011680603027 90.6926193237304688 84.1575241088867188 147 107 0
-71.260528564453125 30.4097537994384766 36.2278099060058594 147 107 0
63.7589149475097656 87.3852996826171875 41.77227783203125 147 107 0
61.1632423400878906 84.418792724609375 48.2241363525390625 147 107 0
34.4968414306640625 149.410079956054688 36.3655204772949219 147 107 0
-65.5878067016601562 45.9901657104492188 44.9804878234863281 147 107 0
-60.216339111328125 102.304252624511719 40.2285308837890625 147 107 0
63.9493446350097656 34.9455986022949219 51.581146240234375 147 107 0
-55.4298896789550781 122.860244750976562 36.8153724670410156 147 107 0
56.3031082153320312 107.5081787109375 47.6950569152832031 147 107 0
64.6731491088867188 90.089324951171875 37.406158447265625 147 107 0
-65.7116546630859375 63.9601936340332031 36.8572044372558594 147 107 0
-5.0386509895324707 -49.9176177978515625 92.0224838256835938 147 107 0
-57.2277755737304688 119.112968444824219 36.6078643798828125 147 107 0
25.0858440399169922 145.359512329101562 49.3982810974121094 147 107 0
-64.137542724609375 91.0861434936523438 37.4047622680664062 147 107 0
-56.1877975463867188 33.6562461853027344 64.5473175048828125 147 107 0
-41.23486328125 114.470703125 61.4465103149414062 147 107 0
-71.1940765380859375 28.4342899322509766 36.2325057983398438 147 107 0
44.5527610778808594 122.610443115234375 53.2934188842773438 147 107 0
3.01755189895629883 97.03753662109375 81.2689285278320312 147 107 0
1.86145603656768799 -17.5712471008300781 100.724967956542969 147 107 0
60.627716064453125 67.5452651977539062 52.8432044982910156 147 107 0
-64.6598281860351562 53.4953994750976562 43.6256065368652344 147 107 0
57.0566596984863281 95.5850067138671875 52.2671966552734375 147 107 0
-4.39163112640380859 -45.016845703125 94.0534896850585938 147 107 0
48.9140548706054688 103.2384033203125 59.9846382141113281 147 107 0
64.657867431640625 22.8725433349609375 53.6141433715820312 147 107 0
32.1553840637207031 126.848602294921875 61.7138595581054688 147 107 0
37.2178802490234375 125.312263488769531 59.1383514404296875 147 107 0
-15.9516239166259766 156.000640869140625 37.3872833251953125 147 107 0
-16.9381790161132812 155.959564208984375 36.873779296875 147 107 0
58.0306358337402344 103.357147216796875 45.9653739929199219 147 107 0
24.1514606475830078 -5.22093296051025391 94.9396133422851562 147 107 0
-66.50433349609375 61.1046257019042969 36.5143280029296875 147 107 0
-26.7664165496826172 141.0810546875 51.1822853088378906 147 107 0
44.3569145202636719 84.1334457397460938 70.8933029174804688 147 107 0
35.0288925170898438 113.817726135253906 68.0602493286132812 147 107 0
-59.883544921875 112.221275329589844 36.5781440734863281 147 107 0
-69.6581878662109375 44.7498550415039062 37.2078323364257812 147 107 0
-69.9677581787109375 43.7980194091796875 36.6843795776367188 147 107 0
53.5838165283203125 73.607879638671875 66.9291152954101562 147 107 0
27.3312778472900391 148.377960205078125 44.5559806823730469 147 107 0
47.1301345825195312 81.94439697265625 69.2270050048828125 147 107 0
60.6588592529296875 109.621543884277344 36.3345680236816406 147 107 0
60.2338409423828125 110.550926208496094 36.7932090759277344 147 107 0
60.0150909423828125 72.776336669921875 53.0402030944824219 147 107 0
-58.6347312927246094 70.7854766845703125 50.2250709533691406 147 107 0
4.15907001495361328 90.6633529663085938 84.1092071533203125 147 107 0
54.6071739196777344 82.5643768310546875 59.6639938354492188 147 107 0
-34.0512619018554688 103.137130737304688 71.069000244140625 147 107 0
41.3939094543457031 116.708076477050781 61.5034217834472656 147 107 0
-26.2894878387451172 78.9740447998046875 82.2674179077148438 147 107 0
3.41385388374328613 100.788230895996094 79.8066864013671875 147 107 0
32.3618659973144531 124.608375549316406 63.2628707885742188 147 107 0
30.5887794494628906 151.9327392578125 35.968963623046875 147 107 0
31.6111125946044922 151.234329223632812 36.0730247497558594 147 107 0
-67.88922119140625 53.0558128356933594 37.4490928649902344 147 107 0
-62.15411376953125 102.361419677734375 37.6148147583007812 147 107 0
-64.688720703125 84.7691574096679688 37.0511360168457031 147 107 0
-17.8414306640625 155.43017578125 37.1927719116210938 147 107 0
69.0672531127929688 45.0224761962890625 35.9490432739257812 147 107 0
69.2869033813476562 44.2171401977539062 35.483978271484375 147 107 0
-28.4848423004150391 133.805099487304688 56.9191017150878906 147 107 0
64.3111343383789062 31.2272224426269531 52.7764396667480469 147 107 0
-53.2416458129882812 74.6498794555664062 59.4641380310058594 147 107 0
29.6859550476074219 152.092010498046875 36.6948318481445312 147 107 0
27.8307361602783203 153.33905029296875 35.9884567260742188 147 107 0
38.2339744567871094 121.218780517578125 61.6824264526367188 147 107 0
54.5619621276855469 88.8492050170898438 58.1113967895507812 147 107 0
61.165313720703125 63.5496406555175781 52.8100204467773438 147 107 0
-53.405364990234375 64.67889404296875 62.2379226684570312 147 107 0
-22.2631759643554688 95.3595352172851562 78.5422897338867188 147 107 0
-59.1858787536621094 80.878570556640625 48.5725975036621094 147 107 0
-61.903411865234375 105.744720458984375 36.6117668151855469 147 107 0
51.8125381469726562 43.8445816040039062 62.1775703430175781 147 107 0
29.4998703002929688 138.385040283203125 52.0084915161132812 147 107 0
59.8183097839355469 99.9625778198242188 43.9069442749023438 147 107 0
30.6828289031982422 131.898895263671875 57.9556617736816406 147 107 0
-36.4089241027832031 87.0620040893554688 74.0311050415039062 147 107 0
65.8947677612304688 84.4653854370117188 35.9785118103027344 147 107 0
27.2146492004394531 109.696121215820312 72.7988357543945312 147 107 0
-21.0467300415039062 154.458450317382812 37.4663581848144531 147 107 0
-67.6246719360351562 56.1434822082519531 36.5520095825195312 147 107 0
-69.8263702392578125 45.7976264953613281 36.5866928100585938 147 107 0
17.6107730865478516 107.234291076660156 75.54229736328125 147 107 0
37.4228019714355469 80.3524017333984375 77.5857086181640625 147 107 0
18.065185546875 90.4547882080078125 82.4090499877929688 147 107 0
-1.41262996196746826 -22.5817909240722656 98.5991439819335938 147 107 0
53.5755500793457031 115.136665344238281 46.3128433227539062 147 107 0
-28.6807651519775391 111.875938415527344 71.6788558959960938 147 107 0
-46.4621620178222656 91.907989501953125 63.8167991638183594 147 107 0
-38.9548454284667969 95.9634857177734375 69.1948928833007812 147 107 0
-60.40435791015625 110.268524169921875 36.7870674133300781 147 107 0
-13.5597133636474609 128.132949829101562 66.963775634765625 147 107 0
-8.65522670745849609 127.49029541015625 68.2707901000976562 147 107 0
4.12813997268676758 122.485877990722656 71.6110382080078125 147 107 0
27.7342357635498047 151.763214111328125 39.4716796875 147 107 0
30.3458900451660156 148.95819091796875 41.5083503723144531 147 107 0
-54.36370849609375 113.13299560546875 46.6719627380371094 147 107 0
-23.8945236206054688 127.352058410644531 65.0096969604492188 147 107 0
61.6972122192382812 99.285919189453125 38.7688560485839844 147 107 0
6.88506507873535156 157.881088256835938 39.1996307373046875 147 107 0
-63.8657493591308594 63.8825187683105469 40.8964080810546875 147 107 0
62.2886161804199219 100.664970397949219 36.9106941223144531 147 107 0
61.9199752807617188 101.672401428222656 37.14453125 147 107 0
34.5437583923339844 130.363525390625 56.6112251281738281 147 107 0
-59.8622512817382812 111.283439636230469 37.246551513671875 147 107 0
69.6866912841796875 40.1180572509765625 35.4645004272460938 147 107 0
65.0274200439453125 36.646270751953125 48.8206024169921875 147 107 0
-64.123779296875 74.7735519409179688 37.5129776000976562 147 107 0
-29.6704540252685547 79.7217636108398438 80.8065185546875 147 107 0
-49.28271484375 92.1930084228515625 60.8764114379882812 147 107 0
-43.5936088562011719 119.888526916503906 55.6971855163574219 147 107 0
-34.9340705871582031 7.6888427734375 87.7207107543945312 147 107 0
-2.11689496040344238 -29.1427993774414062 94.9325790405273438 147 107 0
40.859771728515625 80.3207168579101562 75.4869918823242188 147 107 0
50.2080726623535156 84.928375244140625 64.5030593872070312 147 107 0
-34.877532958984375 116.778404235839844 65.8991775512695312 147 107 0
62.9584693908691406 97.1606903076171875 37.3995552062988281 147 107 0
50.6217155456542969 130.568023681640625 35.9542007446289062 147 107 0
-25.1560401916503906 90.01129150390625 79.53106689453125 147 107 0
54.5890007019042969 105.457908630371094 51.6057052612304688 147 107 0
51.3138885498046875 106.530914306640625 55.814727783203125 147 107 0
63.8370132446289062 26.2859725952148438 55.2962150573730469 147 107 0
52.7711524963378906 76.7382583618164062 64.8455657958984375 147 107 0
-59.3418540954589844 30.1868858337402344 60.7914695739746094 147 107 0
50.2287521362304688 114.736717224121094 52.520233154296875 147 107 0
-29.0568752288818359 95.4171066284179688 75.5297317504882812 147 107 0
57.5888290405273438 108.266700744628906 44.3205413818359375 147 107 0
41.3432083129882812 111.544235229492188 63.9832038879394531 147 107 0
26.8286476135253906 84.2283172607421875 82.1874771118164062 147 107 0
-4.64632081985473633 132.186492919921875 65.5761337280273438 147 107 0
-22.8515396118164062 122.507644653320312 69.0064239501953125 147 107 0
24.8129138946533203 132.959381103515625 60.2735404968261719 147 107 0
41.9296875 81.926239013671875 74.0653305053710938 147 107 0
10.2920703887939453 92.91522216796875 82.6207504272460938 147 107 0
7.9037480354309082 121.542617797851562 71.5919342041015625 147 107 0
3.9791560173034668 -12.7368087768554688 103.506011962890625 147 107 0
-70.226043701171875 42.6930351257324219 36.5060005187988281 147 107 0
15.4748649597167969 86.6051788330078125 84.5318222045898438 147 107 0
-59.1647834777832031 66.3005142211914062 49.9250450134277344 147 107 0
-58.6597175598144531 63.20623779296875 52.4171524047851562 147 107 0
-10.9362516403198242 129.24383544921875 66.8423995971679688 147 107 0
56.286285400390625 92.7940597534179688 54.3396949768066406 147 107 0
-67.203460693359375 57.1382064819335938 36.9681625366210938 147 107 0
47.185760498046875 113.265823364257812 57.219024658203125 147 107 0
51.0698890686035156 80.0203170776367188 65.3970947265625 147 107 0
-11.827479362487793 -17.4429702758789062 97.1161117553710938 147 107 0
32.9477615356445312 83.2211151123046875 79.2040481567382812 147 107 0
-14.1387176513671875 -39.5982208251953125 88.2981033325195312 147 107 0
-70.9543380737304688 27.3476047515869141 36.7663154602050781 147 107 0
-60.9259567260742188 108.329536437988281 37.0322837829589844 147 107 0
24.5358390808105469 -45.9357414245605469 80.8984909057617188 147 107 0
-13.2134437561035156 156.848678588867188 37.0572166442871094 147 107 0
66.3860015869140625 40.8231658935546875 44.6409263610839844 147 107 0
46.3205108642578125 107.55029296875 60.7978057861328125 147 107 0
33.8418846130371094 102.6541748046875 71.521270751953125 147 107 0
41.240814208984375 123.167083740234375 57.0414581298828125 147 107 0
62.6066017150878906 98.6569900512695312 37.2784271240234375 147 107 0
-8.51569271087646484 104.177192687988281 78.0289382934570312 147 107 0
-20.2545604705810547 130.020858764648438 63.5858497619628906 147 107 0
18.5600509643554688 122.124496459960938 69.2398605346679688 147 107 0
17.7086601257324219 124.82318115234375 68.0628814697265625 147 107 0
64.474884033203125 42.18511962890625 47.8978538513183594 147 107 0
34.4496841430664062 88.1736297607421875 76.5452651977539062 147 107 0
-12.9298810958862305 122.817161560058594 70.4085693359375 147 107 0
-56.4028587341308594 109.654495239257812 44.8947372436523438 147 107 0
-46.4893341064453125 18.3258514404296875 76.75164794921875 147 107 0
-56.6765327453613281 85.3233871459960938 52.6121902465820312 147 107 0
-70.4950408935546875 24.6515922546386719 37.7970085144042969 147 107 0
-70.48077392578125 22.5877094268798828 37.8094253540039062 147 107 0
61.3069801330566406 78.7535476684570312 49.3398361206054688 147 107 0
69.1314697265625 42.2270355224609375 36.6973991394042969 147 107 0
14.7122735977172852 91.4388504028320312 82.7828292846679688 147 107 0
-68.7300872802734375 49.8463325500488281 37.2574234008789062 147 107 0
59.7725067138671875 102.816215515136719 42.5290641784667969 147 107 0
57.1331062316894531 112.828720092773438 42.4298782348632812 147 107 0
65.4881210327148438 31.6263008117675781 49.6595726013183594 147 107 0
33.9784088134765625 95.3715362548828125 73.6634140014648438 147 107 0
63.6582489013671875 95.0222702026367188 37.5082550048828125 147 107 0
35.7583122253417969 79.465667724609375 78.7603683471679688 147 107 0
-70.99346923828125 35.4104995727539062 36.6743698120117188 147 107 0
50.7657623291015625 39.1306495666503906 67.0151748657226562 147 107 0
-65.0639419555664062 18.7132759094238281 50.1922073364257812 147 107 0
20.4416027069091797 155.478424072265625 37.5059967041015625 147 107 0
21.3993701934814453 150.75604248046875 45.6362800598144531 147 107 0
29.0161056518554688 95.8850555419921875 75.9633560180664062 147 107 0
39.6620330810546875 127.915763854980469 54.4315948486328125 147 107 0
-69.4012603759765625 46.8701858520507812 37.0909042358398438 147 107 0
67.2627792358398438 47.4543380737304688 40.3626213073730469 147 107 0
66.1569366455078125 47.597015380859375 42.8697891235351562 147 107 0
-57.8401260375976562 117.163734436035156 36.9820175170898438 147 107 0
58.8292045593261719 82.3355636596679688 53.3228073120117188 147 107 0
-9.98654747009277344 157.800430297851562 36.8309593200683594 147 107 0
-0.46962699294090271 129.54534912109375 67.3822021484375 147 107 0
-1.3580089807510376 127.845855712890625 68.2956695556640625 147 107 0
7.30523300170898438 98.1872711181640625 80.67657470703125 147 107 0
56.6434211730957031 119.394462585449219 36.3906288146972656 147 107 0
-16.6047897338867188 141.689834594726562 55.5161857604980469 147 107 0
52.7901763916015625 122.150154113769531 41.351593017578125 147 107 0
-60.1079025268554688 70.957763671875 46.8271865844726562 147 107 0
-52.8859710693359375 22.178253173828125 70.5794296264648438 147 107 0
12.9037971496582031 122.279579162597656 70.5506439208984375 147 107 0
-8.67073440551757812 -13.3127403259277344 98.5323410034179688 147 107 0
0.68504798412322998 110.246795654296875 76.425506591796875 147 107 0
62.2620658874511719 55.6140022277832031 49.9002685546875 147 107 0
35.4015083312988281 108.312339782714844 69.547393798828125 147 107 0
61.2583541870117188 74.0705947875976562 49.9486732482910156 147 107 0
-18.5633563995361328 120.581024169921875 70.972900390625 147 107 0
44.6078414916992188 124.93951416015625 51.4738998413085938 147 107 0
-30.8488426208496094 110.251495361328125 71.1462478637695312 147 107 0
1.14154601097106934 -9.31684207916259766 102.605545043945312 147 107 0
52.2325820922851562 35.4272842407226562 68.84967041015625 147 107 0
48.14862060546875 116.081939697265625 53.9573554992675781 147 107 0
62.1165809631347656 69.8695526123046875 47.7237358093261719 147 107 0
34.4788055419921875 128.606857299804688 58.0137100219726562 147 107 0
-7.57086181640625 101.852516174316406 78.820465087890625 147 107 0
39.6164093017578125 125.978645324707031 55.7408790588378906 147 107 0
50.5141258239746094 117.914802551269531 48.9779586791992188 147 107 0
65.7276763916015625 70.404510498046875 37.3920631408691406 147 107 0
-61.2337760925292969 36.5667953491210938 55.6693534851074219 147 107 0
49.3503799438476562 132.411270141601562 36.6945915222167969 147 107 0
-2.55423593521118164 96.027679443359375 81.5536270141601562 147 107 0
-68.3905181884765625 52.1129875183105469 36.94451904296875 147 107 0
-64.4863433837890625 68.2946243286132812 37.7056159973144531 147 107 0
-64.6167678833007812 69.4463729858398438 37.1366157531738281 147 107 0
-62.2182273864746094 56.6916694641113281 46.8294639587402344 147 107 0
17.0460853576660156 119.118896484375 71.5134124755859375 147 107 0
24.0042247772216797 152.811019897460938 40.6706428527832031 147 107 0
62.5210952758789062 99.8008804321289062 36.9021453857421875 147 107 0
-1.11947095394134521 -15.5932445526123047 100.863037109375 147 107 0
28.2507877349853516 104.683677673339844 73.6500625610351562 147 107 0
68.3618011474609375 51.0966949462890625 35.8072929382324219 147 107 0
64.4076156616210938 49.1239547729492188 46.3428421020507812 147 107 0
-6.9925532341003418 87.5492401123046875 85.405517578125 147 107 0
-27.4269676208496094 117.455467224121094 70.1467514038085938 147 107 0
-26.0922412872314453 113.2027587890625 72.474151611328125 147 107 0
-3.69681596755981445 108.095008850097656 77.089080810546875 147 107 0
-62.1523323059082031 78.5253982543945312 42.2462692260742188 147 107 0
29.5851783752441406 -35.3467483520507812 77.2393798828125 147 107 0
-30.1793346405029297 100.460006713867188 73.6059799194335938 147 107 0
64.15142822265625 83.34686279296875 41.8416252136230469 147 107 0
-39.784820556640625 11.7329111099243164 83.2435531616210938 147 107 0
43.3729667663574219 131.35089111328125 45.5788650512695312 147 107 0
50.3992118835449219 41.7381477355957031 65.453704833984375 147 107 0
42.7105178833007812 13.318943977355957 82.4117507934570312 147 107 0
0.513952970504760742 131.856170654296875 65.9776840209960938 147 107 0
-56.1486625671386719 53.688323974609375 56.7112503051757812 147 107 0
-24.4030818939208984 143.873046875 50.9016571044921875 147 107 0
-52.8510780334472656 93.4946746826171875 56.1296653747558594 147 107 0
28.7795467376708984 98.4644927978515625 75.1039505004882812 147 107 0
-64.6458282470703125 86.3374862670898438 37.1604804992675781 147 107 0
-26.1967658996582031 106.703575134277344 74.08349609375 147 107 0
62.8701248168945312 64.264068603515625 47.35198974609375 147 107 0
-28.9215641021728516 -2.11450004577636719 91.839569091796875 147 107 0
65.6219024658203125 85.5566864013671875 36.4777374267578125 147 107 0
-7.55786705017089844 -50.6259002685546875 89.372039794921875 147 107 0
36.6961135864257812 120.599861145019531 63.8098220825195312 147 107 0
68.2771453857421875 50.0576171875 36.4024238586425781 147 107 0
-64.441558837890625 79.506988525390625 37.2834968566894531 147 107 0
-64.2810287475585938 78.4680099487304688 37.8628883361816406 147 107 0
36.67999267578125 -22.1020298004150391 74.6285781860351562 147 107 0
8.32409954071044922 108.891319274902344 76.6279373168945312 147 107 0
65.6609725952148438 82.09259033203125 37.2257957458496094 147 107 0
65.967681884765625 78.6193923950195312 36.803253173828125 147 107 0
65.8797760009765625 80.8951492309570312 36.7593536376953125 147 107 0
61.6791000366210938 63.9167823791503906 50.362762451171875 147 107 0
-41.0242691040039062 91.8090133666992188 68.8474349975585938 147 107 0
38.8993721008300781 95.9906158447265625 70.3995437622070312 147 107 0
-61.3617362976074219 21.9932003021240234 57.9210433959960938 147 107 0
-21.1754341125488281 111.332382202148438 74.6573486328125 147 107 0
56.4889678955078125 111.649093627929688 43.8261566162109375 147 107 0
-15.1476125717163086 100.019767761230469 78.8045425415039062 147 107 0
-2.22899508476257324 114.654624938964844 75.117950439453125 147 107 0
27.2054557800292969 114.9632568359375 70.9519119262695312 147 107 0
51.9838523864746094 109.225242614746094 53.451995849609375 147 107 0
-4.56807708740234375 -11.0008182525634766 100.934829711914062 147 107 0
69.626983642578125 39.0027999877929688 35.9556770324707031 147 107 0
-39.6787033081054688 103.008865356445312 67.0209121704101562 147 107 0
-43.5967559814453125 108.277923583984375 62.0615768432617188 147 107 0
47.8533592224121094 122.392105102539062 49.5067825317382812 147 107 0
17.6261672973632812 -48.6238365173339844 85.2335052490234375 147 107 0
5.36922693252563477 149.983612060546875 51.9484329223632812 147 107 0
3.28437995910644531 131.356887817382812 66.5498733520507812 147 107 0
28.16754150390625 91.829498291015625 78.411773681640625 147 107 0
22.9114818572998047 140.090499877929688 54.5957717895507812 147 107 0
28.6656608581542969 87.0630722045898438 80.1802520751953125 147 107 0
-8.81206035614013672 -36.2553482055664062 90.1729507446289062 147 107 0
-10.0457487106323242 -36.3463973999023438 89.821380615234375 147 107 0
69.758636474609375 35.2489967346191406 36.3030891418457031 147 107 0
69.945831298828125 36.2414665222167969 35.6764450073242188 147 107 0
-70.2486114501953125 41.5501823425292969 37.0602607727050781 147 107 0
69.9124603271484375 38.0305557250976562 35.2875709533691406 147 107 0
-1.42491602897644043 -41.753936767578125 95.7957916259765625 147 107 0
68.0787582397460938 52.1044120788574219 36.2666893005371094 147 107 0
13.3110561370849609 0.360076993703842163 104.568046569824219 147 107 0
-67.6076889038085938 32.4450798034667969 44.2990379333496094 147 107 0
3.78714203834533691 132.883224487304688 65.1802444458007812 147 107 0
-13.0945329666137695 114.671630859375 74.5335311889648438 147 107 0
28.0528831481933594 102.821601867675781 74.08990478515625 147 107 0
-1.90437602996826172 -50.4855690002441406 93.1208572387695312 147 107 0
62.1453437805175781 43.5261268615722656 50.9898490905761719 147 107 0
-7.38432979583740234 133.146331787109375 64.5293426513671875 147 107 0
-7.33950996398925781 134.606674194335938 64.0677337646484375 147 107 0
60.6781120300292969 -5.28119897842407227 53.1129493713378906 147 107 0
59.1627769470214844 64.824676513671875 58.3394203186035156 147 107 0
23.6831016540527344 154.752273559570312 36.4091110229492188 147 107 0
24.6811943054199219 154.077911376953125 36.8201675415039062 147 107 0
-7.80702018737792969 94.87042236328125 82.0192794799804688 147 107 0
-5.97522592544555664 -46.1546630859375 92.9968185424804688 147 107 0
19.3845806121826172 133.829421997070312 61.7353401184082031 147 107 0
21.5260276794433594 -15.1537437438964844 99.62982177734375 147 107 0
-23.3057384490966797 133.203094482421875 60.6243629455566406 147 107 0
-55.97540283203125 107.51629638671875 45.50372314453125 147 107 0
-71.2594146728515625 34.3316421508789062 36.1583976745605469 147 107 0
-49.8746223449707031 98.5498199462890625 58.4709854125976562 147 107 0
-68.6110992431640625 21.7851772308349609 42.2074356079101562 147 107 0
-59.6399612426757812 54.7067146301269531 51.9181938171386719 147 107 0
59.2406196594238281 32.4585494995117188 61.5584335327148438 147 107 0
2.75947308540344238 135.225143432617188 64.1507034301757812 147 107 0
9.60068893432617188 127.545654296875 68.1380538940429688 147 107 0
7.40962791442871094 125.330223083496094 69.631011962890625 147 107 0
68.088653564453125 38.8264045715332031 40.0340194702148438 147 107 0
-62.3740730285644531 42.0394477844238281 51.8256301879882812 147 107 0
-53.4969482421875 87.9566268920898438 56.6767158508300781 147 107 0
9.27245903015136719 103.548698425292969 78.1529083251953125 147 107 0
22.6822662353515625 154.864898681640625 37.1201705932617188 147 107 0
-9.48515987396240234 -5.49419689178466797 102.598594665527344 147 107 0
54.3931236267089844 79.1711883544921875 61.0102119445800781 147 107 0
-1.12585902214050293 119.736053466796875 72.8514556884765625 147 107 0
13.4288425445556641 101.991729736328125 78.0175552368164062 147 107 0
5.38216590881347656 127.050430297851562 68.8640365600585938 147 107 0
-67.5526580810546875 15.4150419235229492 43.3017387390136719 147 107 0
26.8404502868652344 153.3839111328125 36.6496696472167969 147 107 0
-18.7947921752929688 155.506072998046875 36.7102394104003906 147 107 0
-32.9277267456054688 2.71784591674804688 89.2894058227539062 147 107 0
-64.4509811401367188 89.9971542358398438 37.1686897277832031 147 107 0
-50.2036094665527344 103.581245422363281 56.6342430114746094 147 107 0
-69.48101806640625 47.9425392150878906 36.3510627746582031 147 107 0
-37.6182060241699219 3.62973594665527344 84.8470306396484375 147 107 0
-6.00117588043212891 -27.3624019622802734 95.9928359985351562 147 107 0
-4.43305301666259766 -29.9414310455322266 94.2618026733398438 147 107 0
12.1662492752075195 114.225868225097656 74.340118408203125 147 107 0
23.3308734893798828 94.256744384765625 79.0903167724609375 147 107 0
-69.456207275390625 13.690760612487793 37.3270988464355469 147 107 0
56.2654342651367188 39.8903770446777344 60.4380111694335938 147 107 0
1.76675200462341309 140.084457397460938 60.3983879089355469 147 107 0
60.100433349609375 111.488563537597656 35.9739952087402344 147 107 0
1.2291949987411499 91.0902862548828125 83.8656997680664062 147 107 0
-30.2697734832763672 83.9485015869140625 79.0807723999023438 147 107 0
-57.8827323913574219 116.213951110839844 37.6767005920410156 147 107 0
68.552276611328125 47.9127044677734375 36.5601997375488281 147 107 0
-26.9098377227783203 81.1699447631835938 81.6881866455078125 147 107 0
-67.9527130126953125 54.1330642700195312 36.6693038940429688 147 107 0
59.2716636657714844 37.5464973449707031 57.9774208068847656 147 107 0
-66.6640625 10.5916357040405273 43.4984359741210938 147 107 0
-63.2923431396484375 29.203399658203125 53.6294479370117188 147 107 0
-16.7748546600341797 154.736236572265625 39.73638916015625 147 107 0
-69.1408920288085938 12.6011896133422852 37.8679161071777344 147 107 0
22.3971614837646484 142.849533081054688 53.0723915100097656 147 107 0
70.022552490234375 34.1321868896484375 35.7681999206542969 147 107 0
67.2858200073242188 37.5518989562988281 43.0090522766113281 147 107 0
68.597381591796875 49.0033950805664062 35.9104995727539062 147 107 0
-61.4927139282226562 49.7291374206542969 50.2211380004882812 147 107 0
9.72449970245361328 -33.8939285278320312 93.2882843017578125 147 107 0
45.8946533203125 87.945098876953125 67.92694091796875 147 107 0
70.1599273681640625 32.8151092529296875 35.2818412780761719 147 107 0
8.66968154907226562 133.152481079101562 64.3536148071289062 147 107 0
-70.6459732055664062 23.4861812591552734 37.3325691223144531 147 107 0
-10.9546613693237305 -34.3465576171875 91.1861495971679688 147 107 0
-40.9261054992675781 6.75873279571533203 81.6752548217773438 147 107 0
-11.0815248489379883 -42.981048583984375 87.2293701171875 147 107 0
-10.380640983581543 -45.9621772766113281 87.7674179077148438 147 107 0
-14.1816673278808594 120.286918640136719 71.8394012451171875 147 107 0
-25.6477947235107422 -5.01155710220336914 93.423736572265625 147 107 0
6.40635776519775391 -39.6247482299804688 95.1476593017578125 147 107 0
57.6845207214355469 117.429893493652344 36.4125556945800781 147 107 0
68.8238143920898438 45.952056884765625 36.3820571899414062 147 107 0
53.3871078491210938 103.299102783203125 54.8015899658203125 147 107 0
18.8898029327392578 138.5999755859375 57.7885246276855469 147 107 0
-23.5703353881835938 -15.6993675231933594 92.443756103515625 147 107 0
-7.86272716522216797 -33.2328529357910156 91.9440155029296875 147 107 0
-8.60565376281738281 108.454421997070312 76.7884140014648438 147 107 0
-24.1566352844238281 129.869857788085938 62.6976280212402344 147 107 0
-57.9475173950195312 47.4528770446777344 55.6548500061035156 147 107 0
65.3617706298828125 60.187225341796875 41.0919837951660156 147 107 0
38.562835693359375 110.683120727539062 66.7287445068359375 147 107 0
21.7118339538574219 155.423858642578125 36.6687660217285156 147 107 0
-61.3485145568847656 84.0584487915039062 44.2729721069335938 147 107 0
-61.1367340087890625 89.57904052734375 44.1322402954101562 147 107 0
-17.9512348175048828 83.5642242431640625 84.7596282958984375 147 107 0
12.6952657699584961 -46.0121383666992188 89.7864227294921875 147 107 0
16.0490474700927734 -38.1260185241699219 86.1603469848632812 147 107 0
-17.4328880310058594 -2.51399898529052734 99.3244476318359375 147 107 0
-46.2238616943359375 11.6271581649780273 76.266204833984375 147 107 0
-3.69791102409362793 103.260299682617188 78.5223236083984375 147 107 0
66.4215164184570312 27.6412258148193359 48.2548599243164062 147 107 0
66.1365432739257812 23.722137451171875 50.2952194213867188 147 107 0
6.54377317428588867 135.430389404296875 63.7058258056640625 147 107 0
-17.8882179260253906 -15.0883493423461914 95.7913131713867188 147 107 0
15.61822509765625 -50.6049423217773438 86.14617919921875 147 107 0
-38.1915016174316406 111.560684204101562 65.6032180786132812 147 107 0
66.7225570678710938 60.9680213928222656 36.9270133972167969 147 107 0
69.7210006713867188 37.5239372253417969 36.1972885131835938 147 107 0
6.84314393997192383 -17.1668415069580078 102.410469055175781 147 107 0
-68.0349197387695312 38.7321014404296875 42.842864990234375 147 107 0
-64.6574172973632812 80.5635147094726562 36.8531074523925781 147 107 0
-64.46051025390625 81.656005859375 37.4596290588378906 147 107 0
26.4436664581298828 -12.1927289962768555 94.927642822265625 147 107 0
45.055145263671875 94.3170318603515625 66.4218826293945312 147 107 0
36.260009765625 -2.33994293212890625 80.0345840454101562 147 107 0
52.3457756042480469 73.9369354248046875 68.1996612548828125 147 107 0
-22.7457504272460938 86.4221038818359375 82.1385650634765625 147 107 0
47.3804512023925781 -6.57826089859008789 71.4720916748046875 147 107 0
68.87066650390625 14.4450778961181641 36.8641853332519531 147 107 0
68.8376083374023438 15.5729942321777344 37.3806304931640625 147 107 0
-64.3772201538085938 70.5568008422851562 37.5781974792480469 147 107 0
27.5941257476806641 -13.5246248245239258 91.7470703125 147 107 0
-58.7268600463867188 75.7689743041992188 49.3023567199707031 147 107 0
-10.7234649658203125 -3.98862290382385254 102.315040588378906 147 107 0
-17.6809635162353516 -45.5172882080078125 85.0620880126953125 147 107 0
-14.4002571105957031 -50.064971923828125 85.1570892333984375 147 107 0
7.28993511199951172 116.580085754394531 73.8956527709960938 147 107 0
13.5890359878540039 128.330154418945312 66.8899154663085938 147 107 0
9.86065292358398438 131.018783569335938 65.6228790283203125 147 107 0
20.3821926116943359 98.7595748901367188 77.7433242797851562 147 107 0
-46.86285400390625 105.904090881347656 59.7607307434082031 147 107 0
25.2737464904785156 97.5436935424804688 76.7526016235351562 147 107 0
15.0749931335449219 97.769317626953125 79.6178741455078125 147 107 0
-71.384765625 32.227996826171875 36.0283241271972656 147 107 0
-14.7079105377197266 95.6401519775390625 80.8071517944335938 147 107 0
-31.0254764556884766 106.889106750488281 71.7963180541992188 147 107 0
-64.4290695190429688 83.7570724487304688 37.5739059448242188 147 107 0
-55.4273109436035156 59.2610359191894531 58.2873382568359375 147 107 0
-25.1993999481201172 101.645408630371094 75.5606307983398438 147 107 0
-55.7225761413574219 28.6299896240234375 66.7957229614257812 147 107 0
-18.3467578887939453 108.560401916503906 75.9748611450195312 147 107 0
-50.7819061279296875 84.8115234375 60.8993453979492188 147 107 0
16.5835895538330078 127.78021240234375 66.3548202514648438 147 107 0
-19.1164360046386719 94.4621658325195312 80.0221328735351562 147 107 0
-17.6318778991699219 89.9783401489257812 82.6461334228515625 147 107 0
-0.655696988105773926 -11.6353483200073242 102.156181335449219 147 107 0
69.8902130126953125 31.7443447113037109 35.9428367614746094 147 107 0
70.0033416748046875 30.5658016204833984 35.4053535461425781 147 107 0
27.1180133819580078 -40.2072029113769531 78.941375732421875 147 107 0
43.9609184265136719 76.8727188110351562 74.9743804931640625 147 107 0
-1.45972001552581787 132.59735107421875 65.063507080078125 147 107 0
-2.12707209587097168 -14.5389833450317383 100.948593139648438 147 107 0
-21.4366130828857422 137.202560424804688 57.6360549926757812 147 107 0
-63.7390861511230469 22.3908252716064453 53.1363296508789062 147 107 0
7.16251420974731445 86.1318283081054688 85.57769775390625 147 107 0
-70.6830902099609375 20.4266796112060547 36.4574432373046875 147 107 0
43.4297523498535156 104.660896301269531 64.4855117797851562 147 107 0
-13.9670495986938477 -53.6812820434570312 84.6459579467773438 147 107 0
16.1678543090820312 122.727279663085938 69.7155914306640625 147 107 0
-22.4614181518554688 0.387867987155914307 95.9240036010742188 147 107 0
54.4201889038085938 123.1114501953125 36.61041259765625 147 107 0
54.1862258911132812 124.05816650390625 35.8209953308105469 147 107 0
3.74293303489685059 106.698646545410156 77.6167373657226562 147 107 0
23.1292171478271484 103.724655151367188 75.3906784057617188 147 107 0
-6.82606220245361328 141.234832763671875 58.6062278747558594 147 107 0
-18.9610309600830078 100.393959045410156 77.9121246337890625 147 107 0
2.87010908126831055 117.62677001953125 73.5854263305664062 147 107 0
-14.728424072265625 -37.8591842651367188 88.8995132446289062 147 107 0
20.5957431793212891 -41.3873863220214844 83.5911102294921875 147 107 0
21.7258987426757812 -37.6426582336425781 82.6105270385742188 147 107 0
36.2301826477050781 -13.5365457534790039 77.5658111572265625 147 107 0
-65.8516311645507812 38.2534294128417969 47.0752601623535156 147 107 0
39.4192581176757812 90.7321929931640625 72.2346954345703125 147 107 0
17.2138957977294922 -23.9389476776123047 92.643218994140625 147 107 0
-45.2845687866210938 -10.4701452255249023 67.9644927978515625 147 107 0
43.7596244812011719 7.5331120491027832 80.4059066772460938 147 107 0
59.5227813720703125 19.5136871337890625 63.8329353332519531 147 107 0
-15.7279758453369141 123.569107055664062 70.0964813232421875 147 107 0
-16.0387821197509766 125.008941650390625 68.6647415161132812 147 107 0
14.8286676406860352 -2.87980508804321289 99.823333740234375 147 107 0
-48.0859870910644531 109.924736022949219 56.6805076599121094 147 107 0
-12.9195146560668945 -34.1893692016601562 90.91162109375 147 107 0
-17.431854248046875 -9.63010501861572266 97.16741943359375 147 107 0
9.74058914184570312 -44.6772613525390625 91.9403152465820312 147 107 0
-8.2358245849609375 -44.0465431213378906 91.1592330932617188 147 107 0
-38.9562187194824219 -49.055908203125 57.9194755554199219 147 107 0
-57.8440895080566406 -24.5470600128173828 42.0158538818359375 147 107 0
0.32252800464630127 133.025131225585938 65.1450347900390625 147 107 0
-36.9103584289550781 -1.81472098827362061 84.3684768676757812 147 107 0
-71.0826263427734375 33.2398681640625 36.6157951354980469 147 107 0
-5.38029003143310547 -18.8586883544921875 99.1032257080078125 147 107 0
-62.52777099609375 -14.4041309356689453 37.7838630676269531 147 107 0
47.1855201721191406 4.63009119033813477 77.0175094604492188 147 107 0
-68.2144088745117188 8.333282470703125 38.0017051696777344 147 107 0
25.7761955261230469 153.951614379882812 36.2017173767089844 147 107 0
20.0615348815917969 146.983062744140625 50.178802490234375 147 107 0
20.8499946594238281 153.256118774414062 42.1967239379882812 147 107 0
-7.67403697967529297 -26.5662612915039062 96.0522537231445312 147 107 0
-21.5691757202148438 -2.88471698760986328 96.05084228515625 147 107 0
-15.5444869995117188 -44.832550048828125 85.8885879516601562 147 107 0
64.0976333618164062 54.4890480041503906 46.2940711975097656 147 107 0
24.4112319946289062 118.777473449707031 69.7504501342773438 147 107 0
53.232757568359375 117.53582763671875 45.6165046691894531 147 107 0
-10.1155891418457031 124.812339782714844 69.3826522827148438 147 107 0
-12.220707893371582 91.1976394653320312 83.2387771606445312 147 107 0
-9.86565017700195312 99.3910064697265625 79.6845932006835938 147 107 0
-10.7624406814575195 -22.3349208831787109 96.4414215087890625 147 107 0
-64.4095535278320312 73.7075424194335938 36.9249305725097656 147 107 0
21.1197185516357422 -0.559306025505065918 99.0576629638671875 147 107 0
-63.4492874145507812 86.1063308715820312 39.95440673828125 147 107 0
19.3800735473632812 -52.2401390075683594 83.7568283081054688 147 107 0
-12.712611198425293 -43.531524658203125 86.426971435546875 147 107 0
-64.735321044921875 82.7570877075195312 36.8995132446289062 147 107 0
49.72064208984375 90.798309326171875 63.1747589111328125 147 107 0
-17.2997188568115234 133.945327758789062 62.3717803955078125 147 107 0
-20.8537578582763672 -19.8537979125976562 92.7505416870117188 147 107 0
10.9496421813964844 135.115127563476562 63.1510238647460938 147 107 0
-26.6756858825683594 -32.3969535827636719 83.5015792846679688 147 107 0
-54.7262458801269531 6.44114208221435547 63.6463775634765625 147 107 0
-56.954620361328125 92.4410171508789062 50.4088783264160156 147 107 0
65.19525146484375 10.692204475402832 49.9162483215332031 147 107 0
-69.3498992919921875 14.8106651306152344 37.9800453186035156 147 107 0
55.7005653381347656 18.4508819580078125 70.329803466796875 147 107 0
-19.4543247222900391 -43.7884063720703125 84.4077987670898438 147 107 0
-22.5944023132324219 -42.0874099731445312 81.6240234375 147 107 0
-64.5636672973632812 -6.55116176605224609 38.0518913269042969 147 107 0
-65.5697479248046875 -3.01204609870910645 37.6904487609863281 147 107 0
66.7267684936523438 62.0941848754882812 36.2720413208007812 147 107 0
-21.1532783508300781 -48.840606689453125 81.2332000732421875 147 107 0
-14.5082521438598633 -29.41943359375 92.5362701416015625 147 107 0
-18.6513137817382812 -29.5555973052978516 90.5055313110351562 147 107 0
-65.3582000732421875 14.6213865280151367 48.1543006896972656 147 107 0
-47.8811836242675781 71.9634170532226562 69.9829864501953125 147 107 0
-7.52727508544921875 112.465400695800781 75.5243377685546875 147 107 0
-47.8995780944824219 73.4039535522460938 69.60028076171875 147 107 0
-28.3538398742675781 -12.018467903137207 89.61749267578125 147 107 0
