ply
format ascii 1.0
element vertex 115
property float x
property float y
property float z
property uchar red
property uchar green
property uchar blue
end_header
59.0774765014648438 63.3683662414550781 58.5558891296386719 244 10 0
18.8850421905517578 -60.4819717407226562 77.3736343383789062 244 10 0
45.9192123413085938 62.9024581909179688 71.13623046875 244 10 0
49.065582275390625 54.28961181640625 63.7028350830078125 244 10 0
41.398162841796875 55.3553009033203125 74.84283447265625 244 10 0
-4.50587701797485352 -70.3481063842773438 37.8607978820800781 244 10 0
-3.43208599090576172 -70.6219863891601562 37.3495674133300781 244 10 0
18.7702808380126953 -62.3084259033203125 73.9520111083984375 244 10 0
-5.63172388076782227 -70.6211395263671875 37.2624778747558594 244 10 0
48.0587234497070312 50.1307411193847656 62.9433708190917969 244 10 0
-2.13008499145507812 -67.0027618408203125 71.3198928833007812 244 10 0
38.6168251037597656 -58.8264312744140625 52.6534881591796875 244 10 0
25.1747512817382812 -68.852569580078125 38.0083198547363281 244 10 0
22.9466514587402344 -69.7970504760742188 36.9357490539550781 244 10 0
53.946868896484375 70.2454910278320312 67.205657958984375 244 10 0
18.3666019439697266 -63.8817138671875 71.1158828735351562 244 10 0
-6.72925996780395508 -70.3040084838867188 37.8178291320800781 244 10 0
53.7532234191894531 52.6005020141601562 58.8086891174316406 244 10 0
58.0173110961914062 54.4203643798828125 55.4451217651367188 244 10 0
-0.822308003902435303 -70.4000167846679688 37.4817619323730469 244 10 0
-4.33888721466064453 -67.728485107421875 67.395233154296875 244 10 0
0.319171994924545288 -70.5400924682617188 36.8441810607910156 244 10 0
20.5935173034667969 -69.9969558715820312 37.0470695495605469 244 10 0
24.3562469482421875 -62.2777519226074219 67.3306961059570312 244 10 0
21.7476959228515625 -69.6712570190429688 37.5794944763183594 244 10 0
48.7294158935546875 61.7215309143066406 68.2880325317382812 244 10 0
17.1182899475097656 -69.5431137084960938 37.6117095947265625 244 10 0
22.4518947601318359 -59.489532470703125 74.1322402954101562 244 10 0
56.0600433349609375 66.7289581298828125 63.5189018249511719 244 10 0
54.7870674133300781 68.09375 65.9804458618164062 244 10 0
29.4678325653076172 -59.7794952392578125 65.2366790771484375 244 10 0
2.57156491279602051 -69.7952957153320312 37.9230003356933594 244 10 0
3.61372995376586914 -69.8937911987304688 37.2213859558105469 244 10 0
8.27222633361816406 -68.5883407592773438 42.4411964416503906 244 10 0
5.50037097930908203 -69.7188034057617188 37.0732231140136719 244 10 0
34.7367782592773438 -64.7042083740234375 37.0312309265136719 244 10 0
46.3813934326171875 52.666748046875 66.8981475830078125 244 10 0
47.6976470947265625 53.8041267395019531 65.1881484985351562 244 10 0
31.6680736541748047 -66.4802017211914062 37.2425765991210938 244 10 0
16.1753425598144531 -69.753936767578125 36.9719047546386719 244 10 0
28.419464111328125 -68.036529541015625 37.1248970031738281 244 10 0
4.51011800765991211 -69.4953689575195312 37.7764091491699219 244 10 0
48.9738693237304688 69.422637939453125 71.415771484375 244 10 0
30.7229251861572266 -61.259979248046875 60.6164360046386719 244 10 0
7.53986215591430664 -69.5589218139648438 36.9161758422851562 244 10 0
26.2509632110595703 -68.8365249633789062 37.3546028137207031 244 10 0
28.2673435211181641 -66.6832275390625 40.9352645874023438 244 10 0
11.4803085327148438 -67.3576889038085938 66.8887557983398438 244 10 0
57.033355712890625 64.7586135864257812 61.9992408752441406 244 10 0
20.8949317932128906 -68.142669677734375 42.5284957885742188 244 10 0
19.4228477478027344 -69.672607421875 37.7009849548339844 244 10 0
15.0790987014770508 -67.684051513671875 61.3566703796386719 244 10 0
33.625091552734375 -65.0026473999023438 37.9396095275878906 244 10 0
49.88616943359375 66.034332275390625 69.2999496459960938 244 10 0
30.6025314331054688 -66.6707839965820312 38.093505859375 244 10 0
0.40690198540687561 -68.4971923828125 64.4278793334960938 244 10 0
6.49840021133422852 -69.43792724609375 37.7086067199707031 244 10 0
27.3355598449707031 -68.2042312622070312 37.9063529968261719 244 10 0
58.148681640625 59.9953155517578125 57.4684219360351562 244 10 0
9.84348392486572266 -69.0421295166015625 38.2040863037109375 244 10 0
12.1227855682373047 -69.4750213623046875 36.8800697326660156 244 10 0
-5.43416118621826172 -69.7794265747070312 39.292327880859375 244 10 0
-4.0204920768737793 -68.9462203979492188 45.7996101379394531 244 10 0
29.5341243743896484 -63.193328857421875 57.4711761474609375 244 10 0
36.8152313232421875 -62.9559898376464844 37.8604354858398438 244 10 0
-19.0270786285400391 -66.0804977416992188 45.897918701171875 244 10 0
-11.6790075302124023 -67.5199203491210938 60.2108993530273438 244 10 0
23.0882816314697266 -64.5885696411132812 63.5417518615722656 244 10 0
23.3206539154052734 -66.0696258544921875 56.9475059509277344 244 10 0
46.5109901428222656 49.9124794006347656 64.8497772216796875 244 10 0
8.84333515167236328 -68.4784088134765625 60.4175262451171875 244 10 0
28.5525131225585938 -64.4075546264648438 54.4807586669921875 244 10 0
19.9944381713867188 -67.1410446166992188 56.0698280334472656 244 10 0
55.300018310546875 56.4952507019042969 59.4718132019042969 244 10 0
4.12470817565917969 -68.9939422607421875 61.370391845703125 244 10 0
-12.6469364166259766 -67.9542465209960938 43.8887825012207031 244 10 0
23.9799346923828125 -66.3251190185546875 52.3658332824707031 244 10 0
20.6391983032226562 -67.2812652587890625 50.6655654907226562 244 10 0
45.7714576721191406 58.7920379638671875 69.9846649169921875 244 10 0
13.3097858428955078 -69.3315505981445312 37.7495765686035156 244 10 0
0.532618999481201172 -69.516204833984375 40.6977882385253906 244 10 0
26.1219692230224609 -66.3977813720703125 46.254730224609375 244 10 0
-5.01695489883422852 -68.24627685546875 64.2645034790039062 244 10 0
38.2422714233398438 -60.54302978515625 42.4995307922363281 244 10 0
37.9172248840332031 -62.6007003784179688 36.9879188537597656 244 10 0
-7.41154003143310547 -68.5327301025390625 56.0380516052246094 244 10 0
-0.288102000951766968 -68.9610824584960938 45.4684295654296875 244 10 0
30.3704776763916016 -65.5049896240234375 41.5009613037109375 244 10 0
34.4503402709960938 -62.849395751953125 43.0286293029785156 244 10 0
13.9848690032958984 -68.5701904296875 41.9328765869140625 244 10 0
15.679743766784668 -67.941375732421875 55.5230216979980469 244 10 0
19.7778606414794922 -67.7847366333007812 47.4435043334960938 244 10 0
54.0151939392089844 62.6532478332519531 64.2312850952148438 244 10 0
-1.86869597434997559 -68.8124160766601562 59.3933982849121094 244 10 0
10.9287109375 -68.55596923828125 51.2104835510253906 244 10 0
49.250274658203125 58.0961341857910156 65.9977874755859375 244 10 0
-11.6087274551391602 -67.7990951538085938 51.7061004638671875 244 10 0
14.64166259765625 -69.5022354125976562 37.5006752014160156 244 10 0
55.6834564208984375 62.6688385009765625 62.3052215576171875 244 10 0
1.29399704933166504 -69.2259368896484375 56.699066162109375 244 10 0
42.0805435180664062 -58.5167655944824219 38.3626518249511719 244 10 0
-18.6294670104980469 -65.9754714965820312 49.8342971801757812 244 10 0
40.7853507995605469 -58.4419441223144531 43.6389503479003906 244 10 0
44.1328620910644531 55.0897407531738281 71.405517578125 244 10 0
-5.191864013671875 -68.6986465454101562 51.7283706665039062 244 10 0
46.0057144165039062 50.4257354736328125 66.1920547485351562 244 10 0
4.60183620452880859 -68.8179473876953125 48.70184326171875 244 10 0
19.5207176208496094 -6.34642601013183594 97.5992889404296875 244 10 0
5.84132003784179688 -68.78607177734375 55.4649238586425781 244 10 0
8.18661785125732422 16.3271903991699219 101.946632385253906 244 10 0
52.5385551452636719 66.8137588500976562 67.177703857421875 244 10 0
51.9875831604003906 65.09625244140625 67.2382278442382812 244 10 0
57.1790084838867188 63.0424346923828125 60.3104324340820312 244 10 0
43.4119796752929688 49.0892143249511719 68.03680419921875 244 10 0
35.7890052795410156 -61.4624176025390625 49.8231964111328125 244 10 0
